
# .PCD v0.7 - Point Cloud Data file format
VERSION 0.7
FIELDS x y z
SIZE 4 4 4
TYPE F F F
COUNT 1 1 1
WIDTH 2577.702
HEIGHT 1
VIEWPOINT 0 0 0 1 0 0 0
POINTS 2577.702
DATA ascii
0.021 -0.004 1.0
0.021 -0.004 1.0
0.021 -0.004 1.0
0.021 -0.004 1.0
0.021 -0.004 1.0
0.021 -0.004 1.0
0.021 -0.004 1.0
0.021 -0.004 1.0
0.021 -0.005 1.0
0.021 -0.005 1.0
0.021 -0.005 1.0
0.021 -0.005 1.0
0.021 -0.005 1.0
0.021 -0.005 1.0
0.021 -0.005 1.0
0.021 -0.005 1.0
0.021 -0.005 1.0
0.021 -0.005 1.0
0.021 -0.005 1.0
0.021 -0.005 1.0
0.021 -0.005 1.0
0.021 -0.005 1.0
0.022 -0.005 1.0
0.022 -0.005 1.0
0.022 -0.005 1.0
0.022 -0.005 1.0
0.022 -0.005 1.0
0.022 -0.005 1.0
0.022 -0.005 1.0
0.022 -0.005 1.0
0.022 -0.005 1.0
0.022 -0.005 1.0
0.022 -0.005 1.0
0.022 -0.005 1.0
0.022 -0.005 1.0
0.022 -0.005 1.0
0.022 -0.005 1.0
0.022 -0.005 1.0
0.022 -0.005 1.0
0.022 -0.005 1.0
0.022 -0.005 1.0
0.022 -0.005 1.0
0.022 -0.005 1.0
0.022 -0.005 1.0
0.022 -0.005 1.0
0.022 -0.005 1.0
0.022 -0.005 1.0
0.022 -0.005 1.0
0.022 -0.005 1.0
0.022 -0.005 1.0
0.022 -0.005 1.0
0.022 -0.005 1.0
0.022 -0.005 1.0
0.022 -0.005 1.0
0.022 -0.005 1.0
0.022 -0.005 1.0
0.022 -0.005 1.0
0.022 -0.005 1.0
0.022 -0.005 1.0
0.022 -0.005 1.0
0.022 -0.005 1.0
0.022 -0.005 1.0
0.022 -0.005 1.0
0.023 -0.005 1.0
0.023 -0.005 1.0
0.023 -0.005 1.0
0.023 -0.005 1.0
0.023 -0.005 1.0
0.023 -0.005 1.0
0.023 -0.005 1.0
0.023 -0.005 1.0
0.023 -0.005 1.0
0.023 -0.005 1.0
0.023 -0.005 1.0
0.023 -0.005 1.0
0.023 -0.005 1.0
0.023 -0.005 1.0
0.023 -0.005 1.0
0.023 -0.005 1.0
0.023 -0.005 1.0
0.023 -0.005 1.0
0.023 -0.005 1.0
0.023 -0.005 1.0
0.023 -0.005 1.0
0.023 -0.005 1.0
0.023 -0.005 1.0
0.023 -0.005 1.0
0.023 -0.005 1.0
0.023 -0.005 1.0
0.023 -0.005 1.0
0.023 -0.005 1.0
0.023 -0.005 1.0
0.023 -0.005 1.0
0.023 -0.005 1.0
0.023 -0.005 1.0
0.023 -0.005 1.0
0.023 -0.005 1.0
0.023 -0.005 1.0
0.023 -0.005 1.0
0.023 -0.005 1.0
0.024 -0.005 1.0
0.024 -0.005 1.0
0.024 -0.005 1.0
0.024 -0.005 1.0
0.024 -0.005 1.0
0.024 -0.005 1.0
0.024 -0.005 1.0
0.024 -0.005 1.0
0.024 -0.005 1.0
0.024 -0.005 1.0
0.024 -0.005 1.0
0.024 -0.005 1.0
0.024 -0.005 1.0
0.024 -0.005 1.0
0.024 -0.005 1.0
0.024 -0.005 1.0
0.024 -0.005 1.0
0.024 -0.005 1.0
0.024 -0.005 1.0
0.024 -0.005 1.0
0.024 -0.005 1.0
0.024 -0.005 1.0
0.024 -0.005 1.0
0.024 -0.005 1.0
0.024 -0.005 1.0
0.024 -0.005 1.0
0.024 -0.005 1.0
0.024 -0.005 1.0
0.024 -0.005 1.0
0.024 -0.005 1.0
0.024 -0.005 1.0
0.024 -0.005 1.0
0.024 -0.005 1.0
0.024 -0.005 1.0
0.025 -0.005 1.0
0.025 -0.005 1.0
0.025 -0.005 1.0
0.025 -0.005 1.0
0.025 -0.005 1.0
0.025 -0.005 1.0
0.025 -0.005 1.0
0.025 -0.005 1.0
0.025 -0.005 1.0
0.025 -0.005 1.0
0.025 -0.005 1.0
0.025 -0.005 1.0
0.025 -0.005 1.0
0.025 -0.005 1.0
0.025 -0.005 1.0
0.025 -0.005 1.0
0.025 -0.005 1.0
0.025 -0.005 1.0
0.025 -0.005 1.0
0.025 -0.005 1.0
0.025 -0.005 1.0
0.025 -0.005 1.0
0.025 -0.005 1.0
0.025 -0.005 1.0
0.025 -0.005 1.0
0.025 -0.005 1.0
0.025 -0.005 1.0
0.025 -0.005 1.0
0.025 -0.005 1.0
0.025 -0.005 1.0
0.025 -0.005 1.0
0.026 -0.005 1.0
0.026 -0.005 1.0
0.026 -0.005 1.0
0.026 -0.005 1.0
0.026 -0.005 1.0
0.026 -0.005 1.0
0.026 -0.005 1.0
0.026 -0.005 1.0
0.026 -0.005 1.0
0.026 -0.005 1.0
0.026 -0.005 1.0
0.026 -0.006 1.0
0.026 -0.006 1.0
0.026 -0.006 1.0
0.026 -0.006 1.0
0.026 -0.006 1.0
0.026 -0.006 1.0
0.026 -0.006 1.0
0.026 -0.006 1.0
0.026 -0.006 1.0
0.026 -0.006 1.0
0.026 -0.006 1.0
0.026 -0.006 1.0
0.026 -0.006 1.0
0.026 -0.006 1.0
0.026 -0.006 1.0
0.026 -0.006 1.0
0.026 -0.006 1.0
0.026 -0.006 1.0
0.027 -0.006 1.0
0.027 -0.006 1.0
0.027 -0.006 1.0
0.027 -0.006 1.0
0.027 -0.006 1.0
0.027 -0.006 1.0
0.027 -0.006 1.0
0.027 -0.006 1.0
0.027 -0.006 1.0
0.027 -0.006 1.0
0.027 -0.006 1.0
0.027 -0.006 1.0
0.027 -0.006 1.0
0.027 -0.006 1.0
0.027 -0.006 1.0
0.027 -0.006 1.0
0.027 -0.006 1.0
0.027 -0.006 1.0
0.027 -0.006 1.0
0.027 -0.006 1.0
0.027 -0.006 1.0
0.027 -0.006 1.0
0.027 -0.006 1.0
0.027 -0.006 1.0
0.027 -0.006 1.0
0.027 -0.006 1.0
0.027 -0.006 1.0
0.028 -0.006 1.0
0.028 -0.006 1.0
0.028 -0.006 1.0
0.028 -0.006 1.0
0.028 -0.006 1.0
0.028 -0.006 1.0
0.028 -0.006 1.0
0.028 -0.006 1.0
0.028 -0.006 1.0
0.028 -0.006 1.0
0.028 -0.006 1.0
0.028 -0.006 1.0
0.028 -0.006 1.0
0.028 -0.006 1.0
0.028 -0.006 1.0
0.028 -0.006 1.0
0.028 -0.006 1.0
0.028 -0.006 1.0
0.028 -0.006 1.0
0.028 -0.006 1.0
0.028 -0.006 1.0
0.028 -0.006 1.0
0.028 -0.006 1.0
0.028 -0.006 1.0
0.028 -0.006 1.0
0.029 -0.006 1.0
0.029 -0.006 1.0
0.029 -0.006 1.0
0.029 -0.006 1.0
0.029 -0.006 1.0
0.029 -0.006 1.0
0.029 -0.006 1.0
0.029 -0.006 1.0
0.029 -0.006 1.0
0.029 -0.006 1.0
0.029 -0.006 1.0
0.029 -0.006 1.0
0.029 -0.006 1.0
0.029 -0.006 1.0
0.029 -0.006 1.0
0.029 -0.006 1.0
0.029 -0.006 1.0
0.029 -0.006 1.0
0.029 -0.006 1.0
0.029 -0.006 1.0
0.029 -0.006 1.0
0.029 -0.006 1.0
0.029 -0.006 1.0
0.03 -0.006 1.0
0.03 -0.006 1.0
0.03 -0.006 1.0
0.03 -0.006 1.0
0.03 -0.006 1.0
0.03 -0.006 1.0
0.03 -0.006 1.0
0.03 -0.006 1.0
0.03 -0.006 1.0
0.03 -0.006 1.0
0.03 -0.006 1.0
0.03 -0.006 1.0
0.03 -0.006 1.0
0.03 -0.006 1.0
0.03 -0.006 1.0
0.03 -0.006 1.0
0.03 -0.006 1.0
0.03 -0.006 1.0
0.03 -0.006 1.0
0.03 -0.006 1.0
0.03 -0.006 1.0
0.03 -0.006 1.0
0.031 -0.006 1.0
0.031 -0.006 1.0
0.031 -0.007 1.0
0.031 -0.007 1.0
0.031 -0.007 1.0
0.031 -0.007 1.0
0.031 -0.007 1.0
0.031 -0.007 1.0
0.031 -0.007 1.0
0.031 -0.007 0.999
0.031 -0.007 0.999
0.031 -0.007 0.999
0.031 -0.007 0.999
0.031 -0.007 0.999
0.031 -0.007 0.999
0.031 -0.007 0.999
0.031 -0.007 0.999
0.031 -0.007 0.999
0.031 -0.007 0.999
0.031 -0.007 0.999
0.032 -0.007 0.999
0.032 -0.007 0.999
0.032 -0.007 0.999
0.032 -0.007 0.999
0.032 -0.007 0.999
0.032 -0.007 0.999
0.032 -0.007 0.999
0.032 -0.007 0.999
0.032 -0.007 0.999
0.032 -0.007 0.999
0.032 -0.007 0.999
0.032 -0.007 0.999
0.032 -0.007 0.999
0.032 -0.007 0.999
0.032 -0.007 0.999
0.032 -0.007 0.999
0.032 -0.007 0.999
0.032 -0.007 0.999
0.032 -0.007 0.999
0.033 -0.007 0.999
0.033 -0.007 0.999
0.033 -0.007 0.999
0.033 -0.007 0.999
0.033 -0.007 0.999
0.033 -0.007 0.999
0.033 -0.007 0.999
0.033 -0.007 0.999
0.033 -0.007 0.999
0.033 -0.007 0.999
0.033 -0.007 0.999
0.033 -0.007 0.999
0.033 -0.007 0.999
0.033 -0.007 0.999
0.033 -0.007 0.999
0.033 -0.007 0.999
0.033 -0.007 0.999
0.033 -0.007 0.999
0.034 -0.007 0.999
0.034 -0.007 0.999
0.034 -0.007 0.999
0.034 -0.007 0.999
0.034 -0.007 0.999
0.034 -0.007 0.999
0.034 -0.007 0.999
0.034 -0.007 0.999
0.034 -0.007 0.999
0.034 -0.007 0.999
0.034 -0.007 0.999
0.034 -0.007 0.999
0.034 -0.007 0.999
0.034 -0.007 0.999
0.034 -0.007 0.999
0.034 -0.007 0.999
0.034 -0.007 0.999
0.035 -0.007 0.999
0.035 -0.007 0.999
0.035 -0.007 0.999
0.035 -0.007 0.999
0.035 -0.007 0.999
0.035 -0.007 0.999
0.035 -0.007 0.999
0.035 -0.007 0.999
0.035 -0.007 0.999
0.035 -0.007 0.999
0.035 -0.007 0.999
0.035 -0.007 0.999
0.035 -0.007 0.999
0.035 -0.008 0.999
0.035 -0.008 0.999
0.035 -0.008 0.999
0.036 -0.008 0.999
0.036 -0.008 0.999
0.036 -0.008 0.999
0.036 -0.008 0.999
0.036 -0.008 0.999
0.036 -0.008 0.999
0.036 -0.008 0.999
0.036 -0.008 0.999
0.036 -0.008 0.999
0.036 -0.008 0.999
0.036 -0.008 0.999
0.036 -0.008 0.999
0.036 -0.008 0.999
0.036 -0.008 0.999
0.036 -0.008 0.999
0.037 -0.008 0.999
0.037 -0.008 0.999
0.037 -0.008 0.999
0.037 -0.008 0.999
0.037 -0.008 0.999
0.037 -0.008 0.999
0.037 -0.008 0.999
0.037 -0.008 0.999
0.037 -0.008 0.999
0.037 -0.008 0.999
0.037 -0.008 0.999
0.037 -0.008 0.999
0.037 -0.008 0.999
0.037 -0.008 0.999
0.037 -0.008 0.999
0.038 -0.008 0.999
0.038 -0.008 0.999
0.038 -0.008 0.999
0.038 -0.008 0.999
0.038 -0.008 0.999
0.038 -0.008 0.999
0.038 -0.008 0.999
0.038 -0.008 0.999
0.038 -0.008 0.999
0.038 -0.008 0.999
0.038 -0.008 0.999
0.038 -0.008 0.999
0.038 -0.008 0.999
0.039 -0.008 0.999
0.039 -0.008 0.999
0.039 -0.008 0.999
0.039 -0.008 0.999
0.039 -0.008 0.999
0.039 -0.008 0.999
0.039 -0.008 0.999
0.039 -0.008 0.999
0.039 -0.008 0.999
0.039 -0.008 0.999
0.039 -0.008 0.999
0.039 -0.008 0.999
0.039 -0.008 0.999
0.04 -0.008 0.999
0.04 -0.008 0.999
0.04 -0.008 0.999
0.04 -0.008 0.999
0.04 -0.008 0.999
0.04 -0.008 0.999
0.04 -0.009 0.999
0.04 -0.009 0.999
0.04 -0.009 0.999
0.04 -0.009 0.999
0.04 -0.009 0.999
0.04 -0.009 0.999
0.041 -0.009 0.999
0.041 -0.009 0.999
0.041 -0.009 0.999
0.041 -0.009 0.999
0.041 -0.009 0.999
0.041 -0.009 0.999
0.041 -0.009 0.999
0.041 -0.009 0.999
0.041 -0.009 0.999
0.041 -0.009 0.999
0.041 -0.009 0.999
0.041 -0.009 0.999
0.042 -0.009 0.999
0.042 -0.009 0.999
0.042 -0.009 0.999
0.042 -0.009 0.999
0.042 -0.009 0.999
0.042 -0.009 0.999
0.042 -0.009 0.999
0.042 -0.009 0.999
0.042 -0.009 0.999
0.042 -0.009 0.999
0.042 -0.009 0.999
0.043 -0.009 0.999
0.043 -0.009 0.999
0.043 -0.009 0.999
0.043 -0.009 0.999
0.043 -0.009 0.999
0.043 -0.009 0.999
0.043 -0.009 0.999
0.043 -0.009 0.999
0.043 -0.009 0.999
0.043 -0.009 0.999
0.043 -0.009 0.999
0.044 -0.009 0.999
0.044 -0.009 0.999
0.044 -0.009 0.999
0.044 -0.009 0.999
0.044 -0.009 0.999
0.044 -0.009 0.999
0.044 -0.009 0.999
0.044 -0.009 0.999
0.044 -0.009 0.999
0.044 -0.009 0.999
0.045 -0.009 0.999
0.045 -0.009 0.999
0.045 -0.01 0.999
0.045 -0.01 0.999
0.045 -0.01 0.999
0.045 -0.01 0.999
0.045 -0.01 0.999
0.045 -0.01 0.999
0.045 -0.01 0.999
0.046 -0.01 0.999
0.046 -0.01 0.999
0.046 -0.01 0.999
0.046 -0.01 0.999
0.046 -0.01 0.999
0.046 -0.01 0.999
0.046 -0.01 0.999
0.046 -0.01 0.999
0.046 -0.01 0.999
0.046 -0.01 0.999
0.047 -0.01 0.999
0.047 -0.01 0.999
0.047 -0.01 0.999
0.047 -0.01 0.999
0.047 -0.01 0.999
0.047 -0.01 0.999
0.047 -0.01 0.999
0.047 -0.01 0.999
0.047 -0.01 0.999
0.048 -0.01 0.999
0.048 -0.01 0.999
0.048 -0.01 0.999
0.048 -0.01 0.999
0.048 -0.01 0.999
0.048 -0.01 0.999
0.048 -0.01 0.999
0.048 -0.01 0.999
0.049 -0.01 0.999
0.049 -0.01 0.999
0.049 -0.01 0.999
0.049 -0.01 0.999
0.049 -0.01 0.999
0.049 -0.01 0.999
0.049 -0.01 0.999
0.049 -0.011 0.999
0.05 -0.011 0.999
0.05 -0.011 0.999
0.05 -0.011 0.999
0.05 -0.011 0.999
0.05 -0.011 0.999
0.05 -0.011 0.999
0.05 -0.011 0.999
0.05 -0.011 0.999
0.051 -0.011 0.999
0.051 -0.011 0.999
0.051 -0.011 0.999
0.051 -0.011 0.999
0.051 -0.011 0.999
0.051 -0.011 0.999
0.051 -0.011 0.999
0.051 -0.011 0.999
0.052 -0.011 0.999
0.052 -0.011 0.999
0.052 -0.011 0.999
0.052 -0.011 0.999
0.052 -0.011 0.999
0.052 -0.011 0.999
0.052 -0.011 0.999
0.053 -0.011 0.999
0.053 -0.011 0.999
0.053 -0.011 0.999
0.053 -0.011 0.999
0.053 -0.011 0.999
0.053 -0.011 0.999
0.053 -0.011 0.999
0.054 -0.011 0.998
0.054 -0.011 0.998
0.054 -0.011 0.998
0.054 -0.011 0.998
0.054 -0.012 0.998
0.054 -0.012 0.998
0.054 -0.012 0.998
0.055 -0.012 0.998
0.055 -0.012 0.998
0.055 -0.012 0.998
0.055 -0.012 0.998
0.055 -0.012 0.998
0.055 -0.012 0.998
0.056 -0.012 0.998
0.056 -0.012 0.998
0.056 -0.012 0.998
0.056 -0.012 0.998
0.056 -0.012 0.998
0.056 -0.012 0.998
0.057 -0.012 0.998
0.057 -0.012 0.998
0.057 -0.012 0.998
0.057 -0.012 0.998
0.057 -0.012 0.998
0.057 -0.012 0.998
0.058 -0.012 0.998
0.058 -0.012 0.998
0.058 -0.012 0.998
0.058 -0.012 0.998
0.058 -0.012 0.998
0.058 -0.012 0.998
0.059 -0.012 0.998
0.059 -0.012 0.998
0.059 -0.013 0.998
0.059 -0.013 0.998
0.059 -0.013 0.998
0.059 -0.013 0.998
0.06 -0.013 0.998
0.06 -0.013 0.998
0.06 -0.013 0.998
0.06 -0.013 0.998
0.06 -0.013 0.998
0.061 -0.013 0.998
0.061 -0.013 0.998
0.061 -0.013 0.998
0.061 -0.013 0.998
0.061 -0.013 0.998
0.062 -0.013 0.998
0.062 -0.013 0.998
0.062 -0.013 0.998
0.062 -0.013 0.998
0.062 -0.013 0.998
0.063 -0.013 0.998
0.063 -0.013 0.998
0.063 -0.013 0.998
0.063 -0.013 0.998
0.063 -0.013 0.998
0.064 -0.014 0.998
0.064 -0.014 0.998
0.064 -0.014 0.998
0.064 -0.014 0.998
0.064 -0.014 0.998
0.065 -0.014 0.998
0.065 -0.014 0.998
0.065 -0.014 0.998
0.065 -0.014 0.998
0.065 -0.014 0.998
0.066 -0.014 0.998
0.066 -0.014 0.998
0.066 -0.014 0.998
0.066 -0.014 0.998
0.067 -0.014 0.998
0.067 -0.014 0.998
0.067 -0.014 0.998
0.067 -0.014 0.998
0.067 -0.014 0.998
0.068 -0.014 0.998
0.068 -0.014 0.998
0.068 -0.014 0.998
0.068 -0.015 0.998
0.069 -0.015 0.998
0.069 -0.015 0.998
0.069 -0.015 0.998
0.069 -0.015 0.997
0.07 -0.015 0.997
0.07 -0.015 0.997
0.07 -0.015 0.997
0.07 -0.015 0.997
0.071 -0.015 0.997
0.071 -0.015 0.997
0.071 -0.015 0.997
0.071 -0.015 0.997
0.072 -0.015 0.997
0.072 -0.015 0.997
0.072 -0.015 0.997
0.072 -0.015 0.997
0.073 -0.015 0.997
0.073 -0.016 0.997
0.073 -0.016 0.997
0.074 -0.016 0.997
0.074 -0.016 0.997
0.074 -0.016 0.997
0.074 -0.016 0.997
0.075 -0.016 0.997
0.075 -0.016 0.997
0.075 -0.016 0.997
0.076 -0.016 0.997
0.076 -0.016 0.997
0.076 -0.016 0.997
0.076 -0.016 0.997
0.077 -0.016 0.997
0.077 -0.016 0.997
0.077 -0.016 0.997
0.078 -0.016 0.997
0.078 -0.017 0.997
0.078 -0.017 0.997
0.079 -0.017 0.997
0.079 -0.017 0.997
0.079 -0.017 0.997
0.079 -0.017 0.997
0.08 -0.017 0.997
0.08 -0.017 0.997
0.08 -0.017 0.997
0.081 -0.017 0.997
0.081 -0.017 0.997
0.081 -0.017 0.997
0.082 -0.017 0.996
0.082 -0.017 0.996
0.083 -0.018 0.996
0.083 -0.018 0.996
0.083 -0.018 0.996
0.084 -0.018 0.996
0.084 -0.018 0.996
0.084 -0.018 0.996
0.085 -0.018 0.996
0.085 -0.018 0.996
0.085 -0.018 0.996
0.086 -0.018 0.996
0.086 -0.018 0.996
0.087 -0.018 0.996
0.087 -0.018 0.996
0.087 -0.019 0.996
0.088 -0.019 0.996
0.088 -0.019 0.996
0.088 -0.019 0.996
0.089 -0.019 0.996
0.089 -0.019 0.996
0.09 -0.019 0.996
0.09 -0.019 0.996
0.091 -0.019 0.996
0.091 -0.019 0.996
0.091 -0.019 0.996
0.092 -0.02 0.996
0.092 -0.02 0.996
0.093 -0.02 0.996
0.093 -0.02 0.995
0.094 -0.02 0.995
0.094 -0.02 0.995
0.094 -0.02 0.995
0.095 -0.02 0.995
0.095 -0.02 0.995
0.096 -0.02 0.995
0.096 -0.02 0.995
0.097 -0.021 0.995
0.097 -0.021 0.995
0.098 -0.021 0.995
0.098 -0.021 0.995
0.099 -0.021 0.995
0.099 -0.021 0.995
0.1 -0.021 0.995
0.1 -0.021 0.995
0.101 -0.021 0.995
0.101 -0.022 0.995
0.102 -0.022 0.995
0.102 -0.022 0.995
0.103 -0.022 0.994
0.103 -0.022 0.994
0.104 -0.022 0.994
0.104 -0.022 0.994
0.105 -0.022 0.994
0.106 -0.022 0.994
0.106 -0.023 0.994
0.107 -0.023 0.994
0.107 -0.023 0.994
0.108 -0.023 0.994
0.109 -0.023 0.994
0.109 -0.023 0.994
0.11 -0.023 0.994
0.11 -0.023 0.994
0.111 -0.024 0.994
0.112 -0.024 0.993
0.112 -0.024 0.993
0.113 -0.024 0.993
0.114 -0.024 0.993
0.114 -0.024 0.993
0.115 -0.024 0.993
0.116 -0.025 0.993
0.116 -0.025 0.993
0.117 -0.025 0.993
0.118 -0.025 0.993
0.118 -0.025 0.993
0.119 -0.025 0.993
0.12 -0.025 0.992
0.121 -0.026 0.992
0.121 -0.026 0.992
0.122 -0.026 0.992
0.123 -0.026 0.992
0.124 -0.026 0.992
0.124 -0.026 0.992
0.125 -0.027 0.992
0.126 -0.027 0.992
0.127 -0.027 0.992
0.128 -0.027 0.991
0.128 -0.027 0.991
0.129 -0.027 0.991
0.13 -0.028 0.991
0.131 -0.028 0.991
0.132 -0.028 0.991
0.133 -0.028 0.991
0.134 -0.028 0.991
0.135 -0.029 0.99
0.135 -0.029 0.99
0.136 -0.029 0.99
0.137 -0.029 0.99
0.138 -0.029 0.99
0.139 -0.03 0.99
0.14 -0.03 0.99
0.141 -0.03 0.99
0.142 -0.03 0.989
0.143 -0.03 0.989
0.144 -0.031 0.989
0.146 -0.031 0.989
0.147 -0.031 0.989
0.148 -0.031 0.989
0.149 -0.032 0.988
0.15 -0.032 0.988
0.151 -0.032 0.988
0.152 -0.032 0.988
0.153 -0.033 0.988
0.155 -0.033 0.987
0.156 -0.033 0.987
0.157 -0.033 0.987
0.158 -0.034 0.987
0.16 -0.034 0.987
0.161 -0.034 0.986
0.162 -0.035 0.986
0.164 -0.035 0.986
0.165 -0.035 0.986
0.166 -0.035 0.985
0.168 -0.036 0.985
0.169 -0.036 0.985
0.171 -0.036 0.985
0.172 -0.037 0.984
0.174 -0.037 0.984
0.175 -0.037 0.984
0.177 -0.038 0.984
0.178 -0.038 0.983
0.18 -0.038 0.983
0.182 -0.039 0.983
0.183 -0.039 0.982
0.185 -0.039 0.982
0.187 -0.04 0.982
0.189 -0.04 0.981
0.191 -0.04 0.981
0.192 -0.041 0.98
0.194 -0.041 0.98
0.196 -0.042 0.98
0.198 -0.042 0.979
0.2 -0.043 0.979
0.202 -0.043 0.978
0.204 -0.043 0.978
0.206 -0.044 0.977
0.209 -0.044 0.977
0.211 -0.045 0.976
0.213 -0.045 0.976
0.215 -0.046 0.975
0.913 0.407 -0.027
0.895 0.398 -0.202
0.864 0.385 -0.323
0.815 0.363 -0.451
0.744 0.331 -0.581
0.647 0.288 -0.706
0.523 0.233 -0.82
0.374 0.167 -0.912
0.205 0.092 -0.974
0.911 0.406 0.074
0.905 0.403 0.137
0.892 0.397 0.218
0.874 0.389 0.29
0.854 0.38 0.354
0.833 0.371 0.411
0.81 0.361 0.462
0.787 0.351 0.507
0.765 0.34 0.547
0.742 0.33 0.583
0.72 0.321 0.615
0.699 0.311 0.644
0.678 0.302 0.67
0.659 0.293 0.693
0.64 0.285 0.714
0.621 0.277 0.733
0.604 0.269 0.75
0.587 0.261 0.766
0.571 0.254 0.781
0.556 0.247 0.794
0.541 0.241 0.806
0.527 0.235 0.817
0.514 0.229 0.827
0.501 0.223 0.836
0.489 0.218 0.845
0.477 0.212 0.853
0.466 0.207 0.86
0.455 0.203 0.867
0.445 0.198 0.874
0.435 0.194 0.879
0.425 0.189 0.885
0.416 0.185 0.89
0.407 0.181 0.895
0.399 0.178 0.9
0.391 0.174 0.904
0.383 0.171 0.908
0.376 0.167 0.912
0.368 0.164 0.915
0.361 0.161 0.918
0.355 0.158 0.922
0.348 0.155 0.925
0.342 0.152 0.927
0.336 0.15 0.93
0.33 0.147 0.932
0.324 0.144 0.935
0.319 0.142 0.937
0.314 0.14 0.939
0.308 0.137 0.941
0.303 0.135 0.943
0.299 0.133 0.945
0.294 0.131 0.947
0.289 0.129 0.948
0.285 0.127 0.95
0.281 0.125 0.952
0.277 0.123 0.953
0.273 0.121 0.954
0.269 0.12 0.956
0.265 0.118 0.957
0.261 0.116 0.958
0.258 0.115 0.959
0.254 0.113 0.961
0.251 0.112 0.962
0.247 0.11 0.963
0.244 0.109 0.964
0.241 0.107 0.965
0.238 0.106 0.966
0.235 0.105 0.966
0.232 0.103 0.967
0.229 0.102 0.968
0.226 0.101 0.969
0.224 0.099 0.97
0.221 0.098 0.97
0.218 0.097 0.971
0.216 0.096 0.972
0.213 0.095 0.972
0.211 0.094 0.973
0.208 0.093 0.974
0.206 0.092 0.974
0.204 0.091 0.975
0.202 0.09 0.975
0.2 0.089 0.976
0.197 0.088 0.976
0.195 0.087 0.977
0.193 0.086 0.977
0.191 0.085 0.978
0.189 0.084 0.978
0.188 0.083 0.979
0.186 0.082 0.979
0.184 0.081 0.98
0.182 0.08 0.98
0.18 0.079 0.98
0.179 0.079 0.981
0.177 0.078 0.981
0.175 0.077 0.981
0.174 0.076 0.982
0.172 0.075 0.982
0.171 0.074 0.983
0.169 0.073 0.983
0.168 0.072 0.983
0.167 0.071 0.983
0.165 0.071 0.984
0.164 0.07 0.984
0.163 0.069 0.984
0.162 0.068 0.985
0.161 0.066 0.985
0.16 0.065 0.985
0.159 0.064 0.985
0.158 0.063 0.985
0.157 0.062 0.986
0.156 0.061 0.986
0.156 0.059 0.986
0.155 0.058 0.986
0.155 0.057 0.986
0.155 0.055 0.986
0.155 0.054 0.986
0.155 0.053 0.987
0.155 0.051 0.987
0.155 0.05 0.987
0.156 0.049 0.987
0.157 0.048 0.987
0.157 0.047 0.986
0.158 0.046 0.986
0.159 0.045 0.986
0.16 0.044 0.986
0.161 0.043 0.986
0.163 0.042 0.986
0.164 0.042 0.986
0.165 0.041 0.985
0.167 0.041 0.985
0.168 0.041 0.985
0.17 0.04 0.985
0.171 0.04 0.984
0.173 0.04 0.984
0.174 0.04 0.984
0.176 0.04 0.984
0.178 0.04 0.983
0.179 0.04 0.983
0.181 0.04 0.983
0.183 0.04 0.982
0.184 0.041 0.982
0.186 0.041 0.982
0.188 0.041 0.981
0.19 0.041 0.981
0.192 0.042 0.981
0.194 0.042 0.98
0.196 0.042 0.98
0.197 0.043 0.979
0.199 0.043 0.979
0.202 0.043 0.979
0.668 0.742 -0.065
0.661 0.734 -0.159
0.643 0.714 -0.278
0.612 0.68 -0.404
0.566 0.629 -0.533
0.502 0.557 -0.661
0.418 0.465 -0.78
0.316 0.351 -0.881
0.197 0.219 -0.956
0.667 0.74 0.088
0.664 0.737 0.124
0.655 0.727 0.206
0.642 0.713 0.28
0.628 0.698 0.345
0.612 0.68 0.403
0.596 0.662 0.455
0.579 0.643 0.5
0.563 0.625 0.541
0.546 0.607 0.578
0.53 0.589 0.61
0.514 0.571 0.64
0.499 0.554 0.666
0.485 0.538 0.69
0.471 0.523 0.711
0.457 0.508 0.73
0.444 0.493 0.748
0.432 0.48 0.764
0.42 0.466 0.778
0.409 0.454 0.792
0.398 0.442 0.804
0.388 0.43 0.815
0.378 0.42 0.825
0.368 0.409 0.835
0.359 0.399 0.844
0.351 0.389 0.852
0.342 0.38 0.859
0.334 0.371 0.866
0.327 0.363 0.873
0.32 0.355 0.879
0.313 0.347 0.884
0.306 0.34 0.889
0.299 0.333 0.894
0.293 0.326 0.899
0.287 0.319 0.903
0.281 0.313 0.907
0.276 0.306 0.911
0.271 0.301 0.915
0.265 0.295 0.918
0.261 0.289 0.921
0.256 0.284 0.924
0.251 0.279 0.927
0.247 0.274 0.93
0.242 0.269 0.932
0.238 0.265 0.934
0.234 0.26 0.937
0.23 0.256 0.939
0.227 0.252 0.941
0.223 0.247 0.943
0.219 0.244 0.945
0.216 0.24 0.947
0.213 0.236 0.948
0.209 0.232 0.95
0.206 0.229 0.951
0.203 0.226 0.953
0.2 0.222 0.954
0.197 0.219 0.956
0.194 0.216 0.957
0.192 0.213 0.958
0.189 0.21 0.959
0.186 0.207 0.96
0.184 0.204 0.961
0.181 0.202 0.962
0.179 0.199 0.963
0.177 0.196 0.964
0.174 0.194 0.965
0.172 0.191 0.966
0.17 0.189 0.967
0.168 0.187 0.968
0.166 0.185 0.969
0.164 0.182 0.969
0.162 0.18 0.97
0.16 0.178 0.971
0.158 0.176 0.972
0.156 0.174 0.972
0.154 0.172 0.973
0.152 0.17 0.974
0.151 0.169 0.974
0.149 0.167 0.975
0.147 0.165 0.975
0.145 0.163 0.976
0.144 0.162 0.976
0.142 0.16 0.977
0.14 0.159 0.977
0.138 0.158 0.978
0.137 0.156 0.978
0.135 0.155 0.979
0.133 0.154 0.979
0.132 0.153 0.979
0.13 0.152 0.98
0.128 0.151 0.98
0.126 0.15 0.981
0.124 0.15 0.981
0.123 0.149 0.981
0.121 0.149 0.981
0.119 0.149 0.982
0.117 0.149 0.982
0.115 0.15 0.982
0.114 0.15 0.982
0.112 0.151 0.982
0.11 0.152 0.982
0.109 0.153 0.982
0.108 0.154 0.982
0.107 0.156 0.982
0.106 0.157 0.982
0.105 0.159 0.982
0.105 0.161 0.981
0.104 0.162 0.981
0.307 0.945 -0.111
0.309 0.951 -0.006
0.301 0.926 -0.226
0.29 0.891 -0.349
0.271 0.835 -0.478
0.245 0.756 -0.607
0.211 0.649 -0.731
0.167 0.515 -0.841
0.115 0.355 -0.928
0.079 0.177 -0.981
0.309 0.95 0.037
0.305 0.937 0.17
0.299 0.922 0.247
0.293 0.902 0.316
0.286 0.881 0.377
0.279 0.858 0.432
0.271 0.834 0.48
0.263 0.81 0.523
0.256 0.787 0.562
0.248 0.764 0.596
0.241 0.741 0.627
0.234 0.719 0.654
0.227 0.698 0.679
0.22 0.678 0.702
0.214 0.658 0.722
0.208 0.64 0.74
0.202 0.622 0.757
0.196 0.605 0.772
0.191 0.588 0.786
0.186 0.572 0.799
0.181 0.558 0.81
0.176 0.543 0.821
0.172 0.53 0.831
0.168 0.516 0.84
0.164 0.504 0.848
0.16 0.492 0.856
0.156 0.48 0.863
0.153 0.469 0.87
0.149 0.459 0.876
0.146 0.449 0.882
0.143 0.439 0.887
0.14 0.43 0.892
0.137 0.421 0.897
0.134 0.412 0.901
0.131 0.404 0.905
0.129 0.396 0.909
0.126 0.388 0.913
0.124 0.381 0.916
0.121 0.373 0.92
0.119 0.367 0.923
0.117 0.36 0.926
0.115 0.353 0.928
0.113 0.347 0.931
0.111 0.341 0.933
0.109 0.335 0.936
0.107 0.33 0.938
0.105 0.324 0.94
0.104 0.319 0.942
0.102 0.314 0.944
0.1 0.309 0.946
0.099 0.304 0.947
0.097 0.3 0.949
0.096 0.295 0.951
0.094 0.291 0.952
0.093 0.286 0.954
0.092 0.282 0.955
0.09 0.278 0.956
0.089 0.274 0.958
0.088 0.27 0.959
0.087 0.267 0.96
0.085 0.263 0.961
0.084 0.26 0.962
0.083 0.256 0.963
0.082 0.253 0.964
0.081 0.25 0.965
0.08 0.246 0.966
0.079 0.243 0.967
0.078 0.24 0.968
0.077 0.237 0.968
0.076 0.234 0.969
0.075 0.232 0.97
0.074 0.229 0.971
0.073 0.226 0.971
0.072 0.224 0.972
0.072 0.221 0.973
0.071 0.219 0.973
0.07 0.216 0.974
0.069 0.214 0.974
0.068 0.211 0.975
0.067 0.209 0.976
0.067 0.207 0.976
0.066 0.205 0.977
0.065 0.203 0.977
0.064 0.201 0.978
0.063 0.199 0.978
0.063 0.197 0.978
0.062 0.195 0.979
0.061 0.193 0.979
0.06 0.191 0.98
0.059 0.189 0.98
0.058 0.187 0.981
0.058 0.186 0.981
0.057 0.184 0.981
0.056 0.183 0.982
0.055 0.181 0.982
0.054 0.18 0.982
0.053 0.178 0.983
0.051 0.177 0.983
0.05 0.176 0.983
0.049 0.175 0.983
0.048 0.174 0.984
0.046 0.173 0.984
0.045 0.172 0.984
0.043 0.172 0.984
0.042 0.171 0.984
0.04 0.171 0.984
0.039 0.171 0.984
0.037 0.171 0.985
0.036 0.172 0.985
0.034 0.172 0.984
0.033 0.173 0.984
0.032 0.174 0.984
0.03 0.175 0.984
0.029 0.176 0.984
0.028 0.177 0.984
0.027 0.178 0.984
0.026 0.18 0.983
0.026 0.181 0.983
0.025 0.183 0.983
0.025 0.184 0.983
0.024 0.186 0.982
0.024 0.188 0.982
0.023 0.189 0.982
0.023 0.191 0.981
0.023 0.193 0.981
0.023 0.195 0.981
0.023 0.197 0.98
0.023 0.199 0.98
0.023 0.201 0.979
0.023 0.203 0.979
0.023 0.205 0.978
0.023 0.207 0.978
-0.104 0.991 -0.082
-0.103 0.985 -0.141
-0.101 0.961 -0.259
-0.097 0.918 -0.384
-0.09 0.854 -0.513
-0.08 0.763 -0.642
-0.068 0.643 -0.763
-0.052 0.495 -0.867
-0.034 0.322 -0.946
0.019 0.2 -0.98
-0.104 0.994 0.026
-0.103 0.978 0.179
-0.101 0.961 0.256
-0.099 0.941 0.324
-0.097 0.918 0.384
-0.094 0.894 0.438
-0.091 0.869 0.486
-0.089 0.845 0.528
-0.086 0.82 0.566
-0.084 0.796 0.6
-0.081 0.772 0.63
-0.079 0.749 0.657
-0.076 0.727 0.682
-0.074 0.706 0.704
-0.072 0.686 0.724
-0.07 0.667 0.742
-0.068 0.648 0.759
-0.066 0.63 0.774
-0.064 0.613 0.787
-0.063 0.597 0.8
-0.061 0.581 0.811
-0.06 0.566 0.822
-0.058 0.552 0.832
-0.057 0.538 0.841
-0.055 0.525 0.849
-0.054 0.513 0.857
-0.053 0.501 0.864
-0.051 0.49 0.87
-0.05 0.479 0.877
-0.049 0.468 0.882
-0.048 0.458 0.888
-0.047 0.448 0.893
-0.046 0.439 0.897
-0.045 0.43 0.902
-0.044 0.421 0.906
-0.043 0.413 0.91
-0.043 0.405 0.913
-0.042 0.397 0.917
-0.041 0.39 0.92
-0.04 0.383 0.923
-0.039 0.376 0.926
-0.039 0.369 0.929
-0.038 0.362 0.931
-0.037 0.356 0.934
-0.037 0.35 0.936
-0.036 0.344 0.938
-0.036 0.339 0.94
-0.035 0.333 0.942
-0.034 0.328 0.944
-0.034 0.323 0.946
-0.033 0.318 0.948
-0.033 0.313 0.949
-0.032 0.308 0.951
-0.032 0.303 0.952
-0.031 0.299 0.954
-0.031 0.295 0.955
-0.031 0.29 0.956
-0.03 0.286 0.958
-0.03 0.282 0.959
-0.029 0.278 0.96
-0.029 0.275 0.961
-0.028 0.271 0.962
-0.028 0.267 0.963
-0.028 0.264 0.964
-0.027 0.261 0.965
-0.027 0.257 0.966
-0.027 0.254 0.967
-0.026 0.251 0.968
-0.026 0.248 0.968
-0.026 0.245 0.969
-0.025 0.242 0.97
-0.025 0.239 0.971
-0.025 0.236 0.971
-0.024 0.233 0.972
-0.024 0.231 0.973
-0.024 0.228 0.973
-0.023 0.226 0.974
-0.023 0.223 0.975
-0.023 0.221 0.975
-0.023 0.218 0.976
-0.022 0.216 0.976
-0.022 0.214 0.977
-0.022 0.211 0.977
-0.021 0.209 0.978
-0.021 0.207 0.978
-0.02 0.205 0.979
-0.02 0.203 0.979
-0.02 0.201 0.979
-0.019 0.199 0.98
-0.019 0.197 0.98
-0.018 0.195 0.981
-0.018 0.193 0.981
-0.017 0.192 0.981
-0.017 0.19 0.982
-0.016 0.188 0.982
-0.015 0.187 0.982
-0.015 0.185 0.983
-0.014 0.184 0.983
-0.013 0.182 0.983
-0.012 0.181 0.983
-0.011 0.18 0.984
-0.01 0.179 0.984
-0.008 0.178 0.984
-0.007 0.177 0.984
-0.006 0.176 0.984
-0.004 0.175 0.985
-0.003 0.175 0.985
-0.001 0.175 0.985
0.0 0.174 0.985
0.002 0.175 0.985
0.003 0.175 0.985
0.005 0.175 0.984
0.006 0.176 0.984
0.007 0.177 0.984
0.009 0.178 0.984
0.01 0.179 0.984
0.011 0.18 0.984
0.012 0.181 0.983
0.013 0.183 0.983
0.014 0.184 0.983
0.015 0.185 0.983
0.015 0.187 0.982
0.016 0.189 0.982
0.017 0.19 0.982
0.017 0.192 0.981
0.018 0.194 0.981
0.018 0.196 0.981
0.019 0.197 0.98
0.019 0.199 0.98
0.02 0.201 0.979
0.02 0.203 0.979
0.021 0.205 0.978
0.021 0.208 0.978
-0.5 0.866 -0.014
-0.488 0.845 -0.217
-0.47 0.815 -0.339
-0.442 0.766 -0.468
-0.401 0.695 -0.597
-0.346 0.599 -0.722
-0.277 0.479 -0.833
-0.194 0.335 -0.922
-0.103 0.172 -0.98
-0.499 0.865 0.056
-0.494 0.856 0.153
-0.486 0.842 0.232
-0.477 0.825 0.303
-0.465 0.806 0.366
-0.453 0.785 0.421
-0.441 0.764 0.471
-0.429 0.742 0.515
-0.416 0.721 0.554
-0.404 0.7 0.589
-0.392 0.679 0.621
-0.38 0.659 0.649
-0.369 0.639 0.674
-0.358 0.621 0.697
-0.348 0.603 0.718
-0.338 0.586 0.737
-0.329 0.569 0.754
-0.32 0.554 0.769
-0.311 0.538 0.783
-0.303 0.524 0.796
-0.295 0.51 0.808
-0.287 0.497 0.819
-0.28 0.485 0.829
-0.273 0.473 0.838
-0.266 0.461 0.846
-0.26 0.45 0.854
-0.254 0.44 0.862
-0.248 0.429 0.868
-0.242 0.42 0.875
-0.237 0.41 0.881
-0.232 0.402 0.886
-0.227 0.393 0.891
-0.222 0.385 0.896
-0.218 0.377 0.9
-0.213 0.369 0.905
-0.209 0.362 0.909
-0.205 0.355 0.912
-0.201 0.348 0.916
-0.197 0.341 0.919
-0.193 0.335 0.922
-0.19 0.329 0.925
-0.187 0.323 0.928
-0.183 0.317 0.93
-0.18 0.312 0.933
-0.177 0.306 0.935
-0.174 0.301 0.938
-0.171 0.296 0.94
-0.168 0.291 0.942
-0.166 0.287 0.944
-0.163 0.282 0.945
-0.16 0.278 0.947
-0.158 0.274 0.949
-0.156 0.269 0.95
-0.153 0.265 0.952
-0.151 0.261 0.953
-0.149 0.258 0.955
-0.147 0.254 0.956
-0.145 0.25 0.957
-0.143 0.247 0.958
-0.141 0.243 0.96
-0.139 0.24 0.961
-0.137 0.237 0.962
-0.135 0.234 0.963
-0.134 0.231 0.964
-0.132 0.228 0.965
-0.13 0.225 0.966
-0.129 0.222 0.967
-0.127 0.219 0.967
-0.126 0.216 0.968
-0.125 0.213 0.969
-0.123 0.211 0.97
-0.122 0.208 0.97
-0.121 0.205 0.971
-0.12 0.203 0.972
-0.119 0.2 0.972
-0.118 0.198 0.973
-0.118 0.195 0.974
-0.117 0.193 0.974
-0.117 0.19 0.975
-0.116 0.188 0.975
-0.116 0.185 0.976
-0.116 0.183 0.976
-0.117 0.181 0.977
-0.117 0.179 0.977
-0.118 0.176 0.977
-0.119 0.174 0.977
-0.12 0.173 0.978
-0.122 0.171 0.978
-0.124 0.17 0.978
-0.126 0.168 0.978
-0.128 0.168 0.978
-0.13 0.167 0.977
-0.808 0.587 -0.057
-0.798 0.579 -0.168
-0.775 0.563 -0.287
-0.736 0.535 -0.414
-0.679 0.493 -0.544
-0.6 0.436 -0.671
-0.497 0.361 -0.789
-0.371 0.27 -0.888
-0.226 0.165 -0.96
-0.806 0.586 0.087
-0.803 0.583 0.125
-0.792 0.575 0.207
-0.777 0.564 0.28
-0.759 0.552 0.345
-0.74 0.538 0.403
-0.72 0.523 0.455
-0.7 0.509 0.501
-0.68 0.494 0.542
-0.66 0.48 0.578
-0.641 0.465 0.611
-0.622 0.452 0.64
-0.603 0.438 0.666
-0.586 0.426 0.69
-0.569 0.413 0.711
-0.552 0.401 0.731
-0.537 0.39 0.748
-0.522 0.379 0.764
-0.508 0.369 0.779
-0.494 0.359 0.792
-0.481 0.349 0.804
-0.469 0.34 0.815
-0.457 0.332 0.826
-0.445 0.323 0.835
-0.434 0.316 0.844
-0.424 0.308 0.852
-0.414 0.301 0.859
-0.404 0.294 0.866
-0.395 0.287 0.873
-0.386 0.281 0.879
-0.378 0.275 0.884
-0.37 0.269 0.889
-0.362 0.263 0.894
-0.354 0.257 0.899
-0.347 0.252 0.903
-0.34 0.247 0.907
-0.334 0.242 0.911
-0.327 0.238 0.915
-0.321 0.233 0.918
-0.315 0.229 0.921
-0.309 0.225 0.924
-0.304 0.221 0.927
-0.298 0.217 0.93
-0.293 0.213 0.932
-0.288 0.209 0.935
-0.283 0.206 0.937
-0.278 0.202 0.939
-0.274 0.199 0.941
-0.269 0.196 0.943
-0.265 0.193 0.945
-0.261 0.19 0.947
-0.257 0.187 0.948
-0.253 0.184 0.95
-0.249 0.181 0.951
-0.246 0.178 0.953
-0.242 0.176 0.954
-0.238 0.173 0.956
-0.235 0.171 0.957
-0.232 0.168 0.958
-0.229 0.166 0.959
-0.225 0.164 0.96
-0.222 0.162 0.961
-0.219 0.159 0.963
-0.217 0.157 0.964
-0.214 0.155 0.964
-0.211 0.153 0.965
-0.208 0.151 0.966
-0.206 0.149 0.967
-0.203 0.147 0.968
-0.201 0.146 0.969
-0.198 0.144 0.969
-0.196 0.142 0.97
-0.194 0.14 0.971
-0.192 0.139 0.972
-0.189 0.137 0.972
-0.187 0.135 0.973
-0.185 0.134 0.974
-0.183 0.132 0.974
-0.181 0.131 0.975
-0.18 0.129 0.975
-0.178 0.127 0.976
-0.176 0.126 0.976
-0.174 0.124 0.977
-0.173 0.123 0.977
-0.171 0.121 0.978
-0.17 0.12 0.978
-0.168 0.118 0.979
-0.167 0.116 0.979
-0.166 0.115 0.979
-0.165 0.113 0.98
-0.164 0.111 0.98
-0.163 0.11 0.981
-0.162 0.108 0.981
-0.162 0.106 0.981
-0.161 0.104 0.981
-0.161 0.102 0.982
-0.161 0.1 0.982
-0.161 0.099 0.982
-0.162 0.097 0.982
-0.162 0.095 0.982
-0.163 0.094 0.982
-0.164 0.092 0.982
-0.166 0.091 0.982
-0.167 0.09 0.982
-0.168 0.089 0.982
-0.17 0.088 0.981
-0.172 0.087 0.981
-0.174 0.087 0.981
-0.175 0.087 0.981
-0.177 0.086 0.98
-0.179 0.086 0.98
-0.181 0.086 0.98
-0.183 0.086 0.979
-0.185 0.087 0.979
-0.978 0.208 -0.015
-0.955 0.203 -0.215
-0.921 0.196 -0.338
-0.865 0.184 -0.466
-0.785 0.167 -0.596
-0.678 0.144 -0.721
-0.542 0.115 -0.832
-0.38 0.081 -0.921
-0.198 0.038 -0.979
-0.977 0.208 0.052
-0.966 0.205 0.157
-0.951 0.202 0.236
-0.931 0.198 0.306
-0.909 0.193 0.368
-0.886 0.188 0.424
-0.862 0.183 0.473
-0.837 0.178 0.517
-0.813 0.173 0.556
-0.789 0.168 0.591
-0.766 0.163 0.622
-0.743 0.158 0.65
-0.721 0.153 0.676
-0.7 0.149 0.698
-0.68 0.145 0.719
-0.661 0.14 0.737
-0.642 0.136 0.754
-0.624 0.133 0.77
-0.607 0.129 0.784
-0.591 0.126 0.797
-0.576 0.122 0.808
-0.561 0.119 0.819
-0.547 0.116 0.829
-0.533 0.113 0.838
-0.52 0.111 0.847
-0.508 0.108 0.855
-0.496 0.105 0.862
-0.484 0.103 0.869
-0.474 0.101 0.875
-0.463 0.098 0.881
-0.453 0.096 0.886
-0.443 0.094 0.891
-0.434 0.092 0.896
-0.425 0.09 0.901
-0.417 0.089 0.905
-0.408 0.087 0.909
-0.4 0.085 0.912
-0.393 0.083 0.916
-0.385 0.082 0.919
-0.378 0.08 0.922
-0.371 0.079 0.925
-0.365 0.077 0.928
-0.358 0.076 0.931
-0.352 0.075 0.933
-0.346 0.074 0.935
-0.34 0.072 0.938
-0.334 0.071 0.94
-0.329 0.07 0.942
-0.324 0.069 0.944
-0.319 0.068 0.945
-0.314 0.067 0.947
-0.309 0.066 0.949
-0.304 0.065 0.95
-0.3 0.064 0.952
-0.295 0.063 0.953
-0.291 0.062 0.955
-0.287 0.061 0.956
-0.283 0.06 0.957
-0.279 0.059 0.959
-0.275 0.058 0.96
-0.271 0.058 0.961
-0.268 0.057 0.962
-0.264 0.056 0.963
-0.261 0.055 0.964
-0.257 0.055 0.965
-0.254 0.054 0.966
-0.251 0.053 0.967
-0.248 0.052 0.967
-0.245 0.052 0.968
-0.242 0.051 0.969
-0.239 0.05 0.97
-0.236 0.05 0.971
-0.233 0.049 0.971
-0.231 0.048 0.972
-0.228 0.048 0.973
-0.225 0.047 0.973
-0.223 0.046 0.974
-0.22 0.045 0.974
-0.218 0.045 0.975
-0.216 0.044 0.975
-0.214 0.043 0.976
-0.211 0.042 0.976
-0.209 0.041 0.977
-0.207 0.04 0.977
-0.205 0.039 0.978
-0.203 0.038 0.978
-0.202 0.037 0.979
-0.2 0.036 0.979
-0.198 0.035 0.979
-0.197 0.033 0.98
-0.196 0.032 0.98
-0.195 0.03 0.98
-0.194 0.029 0.981
-0.193 0.027 0.981
-0.192 0.025 0.981
-0.192 0.023 0.981
-0.192 0.021 0.981
-0.192 0.019 0.981
-0.192 0.018 0.981
-0.193 0.016 0.981
-0.194 0.014 0.981
-0.195 0.013 0.981
-0.196 0.011 0.981
-0.198 0.01 0.98
-0.199 0.009 0.98
-0.201 0.008 0.98
-0.203 0.007 0.979
-0.204 0.006 0.979
-0.206 0.005 0.978
-0.208 0.004 0.978
-0.211 0.004 0.978
-0.978 -0.208 -0.02
-0.956 -0.203 -0.21
-0.923 -0.196 -0.332
-0.868 -0.185 -0.46
-0.79 -0.168 -0.59
-0.684 -0.145 -0.715
-0.55 -0.117 -0.827
-0.389 -0.083 -0.918
-0.207 -0.042 -0.977
-0.977 -0.208 0.056
-0.967 -0.205 0.153
-0.951 -0.202 0.232
-0.932 -0.198 0.303
-0.91 -0.194 0.366
-0.887 -0.189 0.421
-0.863 -0.183 0.471
-0.838 -0.178 0.515
-0.814 -0.173 0.554
-0.79 -0.168 0.589
-0.767 -0.163 0.621
-0.744 -0.158 0.649
-0.722 -0.154 0.674
-0.701 -0.149 0.697
-0.681 -0.145 0.718
-0.662 -0.141 0.737
-0.643 -0.137 0.754
-0.625 -0.133 0.769
-0.608 -0.129 0.783
-0.592 -0.126 0.796
-0.576 -0.123 0.808
-0.562 -0.119 0.819
-0.547 -0.116 0.829
-0.534 -0.113 0.838
-0.521 -0.111 0.846
-0.508 -0.108 0.854
-0.496 -0.106 0.862
-0.485 -0.103 0.868
-0.474 -0.101 0.875
-0.464 -0.099 0.881
-0.453 -0.096 0.886
-0.444 -0.094 0.891
-0.434 -0.092 0.896
-0.426 -0.09 0.9
-0.417 -0.089 0.905
-0.409 -0.087 0.909
-0.401 -0.085 0.912
-0.393 -0.084 0.916
-0.386 -0.082 0.919
-0.378 -0.08 0.922
-0.372 -0.079 0.925
-0.365 -0.078 0.928
-0.358 -0.076 0.93
-0.352 -0.075 0.933
-0.346 -0.074 0.935
-0.34 -0.072 0.938
-0.335 -0.071 0.94
-0.329 -0.07 0.942
-0.324 -0.069 0.944
-0.319 -0.068 0.945
-0.314 -0.067 0.947
-0.309 -0.066 0.949
-0.304 -0.065 0.95
-0.3 -0.064 0.952
-0.295 -0.063 0.953
-0.291 -0.062 0.955
-0.287 -0.061 0.956
-0.283 -0.06 0.957
-0.279 -0.059 0.958
-0.275 -0.058 0.96
-0.271 -0.058 0.961
-0.268 -0.057 0.962
-0.264 -0.056 0.963
-0.261 -0.055 0.964
-0.257 -0.055 0.965
-0.254 -0.054 0.966
-0.251 -0.053 0.967
-0.248 -0.052 0.967
-0.245 -0.052 0.968
-0.242 -0.051 0.969
-0.239 -0.05 0.97
-0.236 -0.05 0.97
-0.233 -0.049 0.971
-0.231 -0.048 0.972
-0.228 -0.048 0.972
-0.225 -0.047 0.973
-0.223 -0.046 0.974
-0.221 -0.045 0.974
-0.218 -0.045 0.975
-0.216 -0.044 0.975
-0.214 -0.043 0.976
-0.211 -0.042 0.976
-0.209 -0.041 0.977
-0.207 -0.04 0.977
-0.205 -0.039 0.978
-0.204 -0.038 0.978
-0.202 -0.037 0.979
-0.2 -0.036 0.979
-0.199 -0.035 0.979
-0.197 -0.033 0.98
-0.196 -0.032 0.98
-0.195 -0.03 0.98
-0.194 -0.029 0.981
-0.193 -0.027 0.981
-0.192 -0.025 0.981
-0.192 -0.023 0.981
-0.192 -0.021 0.981
-0.192 -0.02 0.981
-0.192 -0.018 0.981
-0.193 -0.016 0.981
-0.194 -0.014 0.981
-0.195 -0.013 0.981
-0.196 -0.011 0.981
-0.198 -0.01 0.98
-0.199 -0.009 0.98
-0.201 -0.008 0.98
-0.203 -0.007 0.979
-0.204 -0.006 0.979
-0.206 -0.005 0.978
-0.208 -0.004 0.978
-0.21 -0.004 0.978
-0.809 -0.588 -0.025
-0.792 -0.575 -0.204
-0.765 -0.556 -0.326
-0.721 -0.524 -0.454
-0.657 -0.477 -0.584
-0.57 -0.414 -0.709
-0.46 -0.335 -0.822
-0.328 -0.239 -0.914
-0.177 -0.131 -0.975
-0.808 -0.587 0.059
-0.8 -0.581 0.151
-0.787 -0.572 0.231
-0.771 -0.56 0.301
-0.753 -0.547 0.364
-0.734 -0.533 0.42
-0.714 -0.519 0.47
-0.694 -0.504 0.514
-0.674 -0.49 0.553
-0.654 -0.475 0.589
-0.635 -0.461 0.62
-0.616 -0.448 0.648
-0.598 -0.434 0.674
-0.58 -0.422 0.697
-0.564 -0.409 0.717
-0.548 -0.398 0.736
-0.532 -0.387 0.753
-0.517 -0.376 0.769
-0.503 -0.366 0.783
-0.49 -0.356 0.796
-0.477 -0.347 0.808
-0.465 -0.338 0.819
-0.453 -0.329 0.829
-0.442 -0.321 0.838
-0.431 -0.313 0.846
-0.421 -0.306 0.854
-0.411 -0.298 0.861
-0.401 -0.292 0.868
-0.392 -0.285 0.875
-0.384 -0.279 0.88
-0.375 -0.273 0.886
-0.367 -0.267 0.891
-0.36 -0.261 0.896
-0.352 -0.256 0.9
-0.345 -0.251 0.904
-0.338 -0.246 0.908
-0.332 -0.241 0.912
-0.325 -0.236 0.916
-0.319 -0.232 0.919
-0.313 -0.228 0.922
-0.307 -0.223 0.925
-0.302 -0.219 0.928
-0.297 -0.215 0.93
-0.291 -0.212 0.933
-0.286 -0.208 0.935
-0.282 -0.205 0.937
-0.277 -0.201 0.94
-0.272 -0.198 0.942
-0.268 -0.195 0.944
-0.264 -0.192 0.945
-0.26 -0.189 0.947
-0.256 -0.186 0.949
-0.252 -0.183 0.95
-0.248 -0.18 0.952
-0.244 -0.178 0.953
-0.241 -0.175 0.955
-0.237 -0.172 0.956
-0.234 -0.17 0.957
-0.231 -0.168 0.958
-0.228 -0.165 0.96
-0.225 -0.163 0.961
-0.222 -0.161 0.962
-0.219 -0.159 0.963
-0.216 -0.157 0.964
-0.213 -0.155 0.965
-0.21 -0.153 0.966
-0.208 -0.151 0.967
-0.205 -0.149 0.967
-0.203 -0.147 0.968
-0.2 -0.145 0.969
-0.198 -0.143 0.97
-0.195 -0.142 0.97
-0.193 -0.14 0.971
-0.191 -0.138 0.972
-0.189 -0.136 0.972
-0.187 -0.135 0.973
-0.185 -0.133 0.974
-0.183 -0.132 0.974
-0.181 -0.13 0.975
-0.179 -0.128 0.975
-0.177 -0.127 0.976
-0.176 -0.125 0.976
-0.174 -0.124 0.977
-0.172 -0.122 0.977
-0.171 -0.121 0.978
-0.169 -0.119 0.978
-0.168 -0.117 0.979
-0.167 -0.116 0.979
-0.166 -0.114 0.98
-0.165 -0.112 0.98
-0.164 -0.111 0.98
-0.163 -0.109 0.981
-0.162 -0.107 0.981
-0.162 -0.105 0.981
-0.161 -0.104 0.981
-0.161 -0.102 0.982
-0.161 -0.1 0.982
-0.161 -0.098 0.982
-0.162 -0.096 0.982
-0.163 -0.095 0.982
-0.164 -0.093 0.982
-0.165 -0.092 0.982
-0.166 -0.091 0.982
-0.167 -0.089 0.982
-0.169 -0.089 0.982
-0.171 -0.088 0.981
-0.172 -0.087 0.981
-0.174 -0.087 0.981
-0.176 -0.086 0.981
-0.178 -0.086 0.98
-0.18 -0.086 0.98
-0.182 -0.086 0.98
-0.184 -0.087 0.979
-0.498 -0.863 -0.087
-0.495 -0.858 -0.136
-0.484 -0.838 -0.253
-0.463 -0.802 -0.377
-0.431 -0.747 -0.507
-0.386 -0.669 -0.636
-0.327 -0.566 -0.757
-0.253 -0.438 -0.863
-0.166 -0.288 -0.943
-0.139 -0.157 -0.978
-0.5 -0.866 0.027
-0.492 -0.852 0.178
-0.484 -0.837 0.255
-0.473 -0.82 0.323
-0.462 -0.8 0.383
-0.45 -0.779 0.437
-0.437 -0.757 0.485
-0.425 -0.736 0.527
-0.412 -0.714 0.565
-0.4 -0.693 0.599
-0.388 -0.673 0.63
-0.377 -0.653 0.657
-0.366 -0.634 0.682
-0.355 -0.615 0.704
-0.345 -0.598 0.724
-0.335 -0.581 0.742
-0.326 -0.564 0.758
-0.317 -0.549 0.773
-0.308 -0.534 0.787
-0.3 -0.52 0.8
-0.292 -0.506 0.811
-0.285 -0.493 0.822
-0.278 -0.481 0.832
-0.271 -0.469 0.841
-0.264 -0.458 0.849
-0.258 -0.447 0.857
-0.252 -0.436 0.864
-0.246 -0.426 0.87
-0.241 -0.417 0.877
-0.235 -0.408 0.882
-0.23 -0.399 0.888
-0.225 -0.39 0.893
-0.221 -0.382 0.897
-0.216 -0.374 0.902
-0.212 -0.367 0.906
-0.208 -0.36 0.91
-0.204 -0.353 0.913
-0.2 -0.346 0.917
-0.196 -0.339 0.92
-0.192 -0.333 0.923
-0.189 -0.327 0.926
-0.186 -0.321 0.929
-0.182 -0.316 0.931
-0.179 -0.31 0.934
-0.176 -0.305 0.936
-0.173 -0.3 0.938
-0.17 -0.295 0.94
-0.167 -0.29 0.942
-0.165 -0.285 0.944
-0.162 -0.281 0.946
-0.16 -0.277 0.948
-0.157 -0.272 0.949
-0.155 -0.268 0.951
-0.153 -0.264 0.952
-0.15 -0.26 0.954
-0.148 -0.257 0.955
-0.146 -0.253 0.956
-0.144 -0.249 0.958
-0.142 -0.246 0.959
-0.14 -0.242 0.96
-0.138 -0.239 0.961
-0.137 -0.236 0.962
-0.135 -0.233 0.963
-0.133 -0.23 0.964
-0.132 -0.227 0.965
-0.13 -0.224 0.966
-0.128 -0.221 0.967
-0.127 -0.218 0.968
-0.126 -0.215 0.968
-0.124 -0.213 0.969
-0.123 -0.21 0.97
-0.122 -0.207 0.971
-0.121 -0.205 0.971
-0.12 -0.202 0.972
-0.119 -0.2 0.973
-0.118 -0.197 0.973
-0.118 -0.194 0.974
-0.117 -0.192 0.974
-0.117 -0.19 0.975
-0.116 -0.187 0.975
-0.116 -0.185 0.976
-0.116 -0.182 0.976
-0.117 -0.18 0.977
-0.117 -0.178 0.977
-0.118 -0.176 0.977
-0.119 -0.174 0.977
-0.121 -0.172 0.978
-0.122 -0.171 0.978
-0.124 -0.169 0.978
-0.126 -0.168 0.978
-0.128 -0.167 0.978
-0.13 -0.167 0.977
-0.104 -0.994 -0.025
-0.102 -0.974 -0.203
-0.099 -0.941 -0.325
-0.093 -0.887 -0.453
-0.085 -0.808 -0.583
-0.074 -0.702 -0.708
-0.06 -0.567 -0.821
-0.043 -0.405 -0.913
-0.023 -0.221 -0.975
-0.104 -0.992 0.07
-0.103 -0.985 0.141
-0.102 -0.97 0.221
-0.1 -0.951 0.293
-0.098 -0.929 0.357
-0.095 -0.905 0.414
-0.093 -0.881 0.464
-0.09 -0.856 0.509
-0.087 -0.831 0.549
-0.085 -0.807 0.585
-0.082 -0.783 0.616
-0.08 -0.76 0.645
-0.078 -0.738 0.671
-0.075 -0.716 0.694
-0.073 -0.695 0.715
-0.071 -0.675 0.734
-0.069 -0.656 0.751
-0.067 -0.638 0.767
-0.065 -0.621 0.781
-0.064 -0.604 0.794
-0.062 -0.588 0.806
-0.06 -0.573 0.817
-0.059 -0.559 0.827
-0.057 -0.545 0.837
-0.056 -0.531 0.845
-0.055 -0.519 0.853
-0.053 -0.506 0.861
-0.052 -0.495 0.867
-0.051 -0.484 0.874
-0.05 -0.473 0.88
-0.049 -0.463 0.885
-0.048 -0.453 0.89
-0.047 -0.443 0.895
-0.046 -0.434 0.9
-0.045 -0.425 0.904
-0.044 -0.417 0.908
-0.043 -0.409 0.912
-0.042 -0.401 0.915
-0.041 -0.393 0.919
-0.041 -0.386 0.922
-0.04 -0.379 0.925
-0.039 -0.372 0.927
-0.038 -0.365 0.93
-0.038 -0.359 0.933
-0.037 -0.353 0.935
-0.036 -0.347 0.937
-0.036 -0.341 0.939
-0.035 -0.336 0.941
-0.035 -0.33 0.943
-0.034 -0.325 0.945
-0.034 -0.32 0.947
-0.033 -0.315 0.949
-0.033 -0.31 0.95
-0.032 -0.305 0.952
-0.032 -0.301 0.953
-0.031 -0.297 0.954
-0.031 -0.292 0.956
-0.03 -0.288 0.957
-0.03 -0.284 0.958
-0.029 -0.28 0.959
-0.029 -0.276 0.961
-0.029 -0.273 0.962
-0.028 -0.269 0.963
-0.028 -0.266 0.964
-0.028 -0.262 0.965
-0.027 -0.259 0.966
-0.027 -0.256 0.966
-0.026 -0.252 0.967
-0.026 -0.249 0.968
-0.026 -0.246 0.969
-0.025 -0.243 0.97
-0.025 -0.24 0.97
-0.025 -0.238 0.971
-0.024 -0.235 0.972
-0.024 -0.232 0.972
-0.024 -0.229 0.973
-0.024 -0.227 0.974
-0.023 -0.224 0.974
-0.023 -0.222 0.975
-0.023 -0.219 0.975
-0.022 -0.217 0.976
-0.022 -0.215 0.976
-0.022 -0.213 0.977
-0.021 -0.21 0.977
-0.021 -0.208 0.978
-0.021 -0.206 0.978
-0.02 -0.204 0.979
-0.02 -0.202 0.979
-0.019 -0.2 0.98
-0.019 -0.198 0.98
-0.018 -0.196 0.98
-0.018 -0.194 0.981
-0.017 -0.193 0.981
-0.017 -0.191 0.981
-0.016 -0.189 0.982
-0.015 -0.188 0.982
-0.014 -0.186 0.982
-0.013 -0.185 0.983
-0.013 -0.183 0.983
-0.012 -0.182 0.983
-0.01 -0.181 0.984
-0.009 -0.179 0.984
-0.008 -0.178 0.984
-0.007 -0.178 0.984
-0.005 -0.177 0.984
-0.004 -0.176 0.984
-0.002 -0.176 0.984
-0.001 -0.176 0.984
0.001 -0.176 0.984
0.002 -0.176 0.984
0.004 -0.176 0.984
0.005 -0.177 0.984
0.007 -0.178 0.984
0.008 -0.179 0.984
0.009 -0.18 0.984
0.011 -0.181 0.983
0.012 -0.182 0.983
0.013 -0.183 0.983
0.014 -0.185 0.983
0.014 -0.186 0.982
0.015 -0.188 0.982
0.016 -0.189 0.982
0.017 -0.191 0.981
0.017 -0.193 0.981
0.018 -0.195 0.981
0.018 -0.196 0.98
0.019 -0.198 0.98
0.019 -0.2 0.98
0.02 -0.202 0.979
0.02 -0.204 0.979
0.021 -0.206 0.978
0.021 -0.208 0.978
0.309 -0.951 -0.026
0.303 -0.931 -0.203
0.292 -0.9 -0.324
0.276 -0.848 -0.452
0.251 -0.773 -0.582
0.218 -0.672 -0.708
0.176 -0.543 -0.821
0.126 -0.388 -0.913
0.071 -0.212 -0.975
0.309 -0.95 0.056
0.305 -0.94 0.154
0.301 -0.925 0.233
0.294 -0.906 0.303
0.288 -0.885 0.366
0.28 -0.862 0.422
0.273 -0.839 0.471
0.265 -0.815 0.515
0.257 -0.791 0.554
0.25 -0.768 0.59
0.242 -0.745 0.621
0.235 -0.723 0.649
0.228 -0.702 0.674
0.221 -0.682 0.697
0.215 -0.662 0.718
0.209 -0.643 0.737
0.203 -0.625 0.754
0.197 -0.608 0.769
0.192 -0.591 0.783
0.187 -0.576 0.796
0.182 -0.56 0.808
0.177 -0.546 0.819
0.173 -0.532 0.829
0.169 -0.519 0.838
0.165 -0.506 0.847
0.161 -0.494 0.854
0.157 -0.483 0.862
0.153 -0.472 0.868
0.15 -0.461 0.875
0.146 -0.451 0.881
0.143 -0.441 0.886
0.14 -0.431 0.891
0.137 -0.422 0.896
0.134 -0.414 0.9
0.132 -0.405 0.905
0.129 -0.397 0.909
0.127 -0.39 0.912
0.124 -0.382 0.916
0.122 -0.375 0.919
0.12 -0.368 0.922
0.117 -0.361 0.925
0.115 -0.355 0.928
0.113 -0.348 0.93
0.111 -0.342 0.933
0.109 -0.337 0.935
0.108 -0.331 0.938
0.106 -0.325 0.94
0.104 -0.32 0.942
0.102 -0.315 0.944
0.101 -0.31 0.945
0.099 -0.305 0.947
0.098 -0.3 0.949
0.096 -0.296 0.95
0.095 -0.291 0.952
0.093 -0.287 0.953
0.092 -0.283 0.955
0.091 -0.279 0.956
0.089 -0.275 0.957
0.088 -0.271 0.958
0.087 -0.267 0.96
0.086 -0.264 0.961
0.085 -0.26 0.962
0.083 -0.257 0.963
0.082 -0.253 0.964
0.081 -0.25 0.965
0.08 -0.247 0.966
0.079 -0.244 0.967
0.078 -0.241 0.967
0.077 -0.238 0.968
0.076 -0.235 0.969
0.075 -0.232 0.97
0.074 -0.229 0.97
0.074 -0.227 0.971
0.073 -0.224 0.972
0.072 -0.222 0.972
0.071 -0.219 0.973
0.07 -0.217 0.974
0.069 -0.214 0.974
0.068 -0.212 0.975
0.068 -0.21 0.975
0.067 -0.207 0.976
0.066 -0.205 0.976
0.065 -0.203 0.977
0.064 -0.201 0.977
0.064 -0.199 0.978
0.063 -0.197 0.978
0.062 -0.195 0.979
0.061 -0.193 0.979
0.06 -0.191 0.98
0.06 -0.19 0.98
0.059 -0.188 0.98
0.058 -0.186 0.981
0.057 -0.185 0.981
0.056 -0.183 0.982
0.055 -0.181 0.982
0.054 -0.18 0.982
0.053 -0.179 0.982
0.052 -0.177 0.983
0.05 -0.176 0.983
0.049 -0.175 0.983
0.048 -0.174 0.984
0.047 -0.173 0.984
0.045 -0.172 0.984
0.044 -0.172 0.984
0.042 -0.171 0.984
0.041 -0.171 0.984
0.039 -0.171 0.984
0.038 -0.171 0.985
0.036 -0.171 0.985
0.035 -0.172 0.984
0.033 -0.173 0.984
0.032 -0.173 0.984
0.031 -0.174 0.984
0.029 -0.175 0.984
0.028 -0.177 0.984
0.027 -0.178 0.984
0.027 -0.179 0.983
0.026 -0.181 0.983
0.025 -0.182 0.983
0.025 -0.184 0.983
0.024 -0.186 0.982
0.024 -0.187 0.982
0.023 -0.189 0.982
0.023 -0.191 0.981
0.023 -0.193 0.981
0.023 -0.195 0.981
0.023 -0.197 0.98
0.023 -0.199 0.98
0.023 -0.201 0.979
0.023 -0.203 0.979
0.023 -0.205 0.979
0.023 -0.207 0.978
0.666 -0.739 -0.103
0.664 -0.738 -0.119
0.65 -0.722 -0.235
0.625 -0.694 -0.359
0.584 -0.649 -0.488
0.527 -0.585 -0.617
0.45 -0.5 -0.74
0.354 -0.393 -0.848
0.241 -0.267 -0.933
0.157 -0.124 -0.98
0.669 -0.743 0.027
0.658 -0.731 0.178
0.647 -0.719 0.255
0.633 -0.703 0.323
0.618 -0.686 0.383
0.602 -0.668 0.437
0.585 -0.65 0.485
0.569 -0.631 0.527
0.552 -0.613 0.565
0.536 -0.595 0.599
0.52 -0.577 0.63
0.504 -0.56 0.657
0.49 -0.544 0.682
0.475 -0.528 0.704
0.462 -0.513 0.724
0.449 -0.498 0.742
0.436 -0.484 0.758
0.424 -0.471 0.773
0.413 -0.458 0.787
0.402 -0.446 0.8
0.391 -0.434 0.811
0.381 -0.423 0.822
0.372 -0.413 0.832
0.362 -0.403 0.841
0.354 -0.393 0.849
0.345 -0.383 0.857
0.337 -0.375 0.864
0.329 -0.366 0.87
0.322 -0.358 0.877
0.315 -0.35 0.882
0.308 -0.342 0.888
0.302 -0.335 0.893
0.295 -0.328 0.897
0.289 -0.321 0.902
0.283 -0.315 0.906
0.278 -0.309 0.91
0.272 -0.303 0.913
0.267 -0.297 0.917
0.262 -0.291 0.92
0.257 -0.286 0.923
0.253 -0.281 0.926
0.248 -0.276 0.929
0.244 -0.271 0.931
0.24 -0.266 0.934
0.236 -0.262 0.936
0.232 -0.257 0.938
0.228 -0.253 0.94
0.224 -0.249 0.942
0.221 -0.245 0.944
0.217 -0.241 0.946
0.214 -0.237 0.948
0.21 -0.234 0.949
0.207 -0.23 0.951
0.204 -0.227 0.952
0.201 -0.223 0.954
0.198 -0.22 0.955
0.195 -0.217 0.956
0.193 -0.214 0.958
0.19 -0.211 0.959
0.187 -0.208 0.96
0.185 -0.205 0.961
0.182 -0.203 0.962
0.18 -0.2 0.963
0.178 -0.197 0.964
0.175 -0.195 0.965
0.173 -0.192 0.966
0.171 -0.19 0.967
0.169 -0.188 0.968
0.167 -0.185 0.968
0.165 -0.183 0.969
0.163 -0.181 0.97
0.161 -0.179 0.971
0.159 -0.177 0.971
0.157 -0.175 0.972
0.155 -0.173 0.973
0.153 -0.171 0.973
0.151 -0.169 0.974
0.149 -0.167 0.974
0.148 -0.166 0.975
0.146 -0.164 0.976
0.144 -0.162 0.976
0.142 -0.161 0.977
0.141 -0.159 0.977
0.139 -0.158 0.978
0.137 -0.157 0.978
0.136 -0.155 0.978
0.134 -0.154 0.979
0.132 -0.153 0.979
0.13 -0.152 0.98
0.129 -0.151 0.98
0.127 -0.151 0.98
0.125 -0.15 0.981
0.123 -0.15 0.981
0.121 -0.149 0.981
0.119 -0.149 0.982
0.118 -0.149 0.982
0.116 -0.149 0.982
0.114 -0.15 0.982
0.112 -0.151 0.982
0.111 -0.151 0.982
0.11 -0.152 0.982
0.108 -0.154 0.982
0.107 -0.155 0.982
0.106 -0.157 0.982
0.105 -0.158 0.982
0.105 -0.16 0.982
0.104 -0.162 0.981
0.104 -0.164 0.981
0.913 -0.406 -0.042
0.898 -0.4 -0.184
0.87 -0.387 -0.305
0.824 -0.367 -0.432
0.756 -0.336 -0.562
0.662 -0.295 -0.689
0.543 -0.242 -0.804
0.398 -0.177 -0.9
0.231 -0.103 -0.967
0.91 -0.405 0.093
0.907 -0.404 0.119
0.895 -0.398 0.202
0.878 -0.391 0.276
0.859 -0.382 0.342
0.837 -0.373 0.4
0.815 -0.363 0.452
0.792 -0.353 0.498
0.769 -0.343 0.539
0.747 -0.333 0.576
0.725 -0.323 0.609
0.703 -0.313 0.638
0.683 -0.304 0.665
0.663 -0.295 0.688
0.643 -0.286 0.71
0.625 -0.278 0.729
0.607 -0.27 0.747
0.59 -0.263 0.763
0.574 -0.256 0.778
0.559 -0.249 0.791
0.544 -0.242 0.803
0.53 -0.236 0.815
0.516 -0.23 0.825
0.504 -0.224 0.834
0.491 -0.219 0.843
0.479 -0.213 0.851
0.468 -0.208 0.859
0.457 -0.204 0.866
0.447 -0.199 0.872
0.437 -0.194 0.878
0.427 -0.19 0.884
0.418 -0.186 0.889
0.409 -0.182 0.894
0.401 -0.178 0.899
0.393 -0.175 0.903
0.385 -0.171 0.907
0.377 -0.168 0.911
0.37 -0.165 0.914
0.363 -0.162 0.918
0.356 -0.159 0.921
0.35 -0.156 0.924
0.343 -0.153 0.927
0.337 -0.15 0.929
0.331 -0.147 0.932
0.326 -0.145 0.934
0.32 -0.142 0.937
0.315 -0.14 0.939
0.31 -0.138 0.941
0.305 -0.136 0.943
0.3 -0.133 0.945
0.295 -0.131 0.946
0.29 -0.129 0.948
0.286 -0.127 0.95
0.282 -0.125 0.951
0.278 -0.124 0.953
0.273 -0.122 0.954
0.27 -0.12 0.955
0.266 -0.118 0.957
0.262 -0.117 0.958
0.258 -0.115 0.959
0.255 -0.113 0.96
0.251 -0.112 0.961
0.248 -0.11 0.962
0.245 -0.109 0.963
0.242 -0.108 0.964
0.238 -0.106 0.965
0.235 -0.105 0.966
0.233 -0.104 0.967
0.23 -0.102 0.968
0.227 -0.101 0.969
0.224 -0.1 0.969
0.221 -0.099 0.97
0.219 -0.097 0.971
0.216 -0.096 0.972
0.214 -0.095 0.972
0.211 -0.094 0.973
0.209 -0.093 0.973
